0.023500 -0.053749 0.000000
-0.023404 -0.091283 -0.008000
0.009426 -0.100324 -0.007394
0.001701 -0.117506 0.000000
-0.052522 -0.054023 -0.005894
0.041684 -0.027646 0.000000
0.045302 -0.003811 0.000000
0.047380 -0.033483 -0.008000
0.027492 -0.061061 -0.008000
0.040903 -0.017593 0.000000
-0.031791 0.022061 0.000000
0.012145 -0.017181 0.000000
0.037416 0.022484 -0.008000
0.016878 0.009257 0.000000
0.043736 0.005982 0.000000
0.005213 0.028250 -0.014873
0.005000 -0.158240 -0.015183
0.016551 -0.012954 -0.036793
0.020000 -0.155663 -0.032503
-0.036731 0.013893 0.000000
0.009092 -0.014103 -0.035824
-0.006323 -0.104815 0.000000
-0.031772 0.018434 -0.011030
-0.052522 0.019990 -0.003492
0.024978 0.037475 -0.001712
-0.043492 -0.066394 0.000000
-0.051620 -0.014912 0.000000
0.042449 -0.009566 -0.008000
-0.007554 -0.038194 -0.008000
-0.000215 0.031653 -0.008000
0.049951 0.019337 0.000000
-0.037829 0.015864 0.000000
-0.009687 -0.000432 -0.036779
0.019944 0.028250 -0.010366
0.019173 -0.052255 -0.008000
0.033470 -0.013219 -0.008000
-0.003016 0.047882 -0.008000
0.049346 -0.043304 -0.008000
0.031969 -0.060803 -0.008000
0.020600 -0.039581 -0.008000
0.002478 -0.016242 -0.033254
-0.014062 0.023541 -0.034242
-0.019945 -0.036575 0.000000
0.048885 0.021249 0.000000
-0.009596 -0.158508 -0.045842
-0.020266 -0.049417 -0.008000
0.004825 -0.154787 -0.035619
0.014392 0.026263 0.000000
-0.010743 0.052500 -0.005899
-0.012159 -0.165733 0.000000
-0.038855 -0.012762 0.000000
-0.002781 -0.057953 0.000000
-0.005551 0.037220 -0.008000
-0.002073 -0.112953 0.000000
-0.033930 -0.036229 -0.008000
0.040826 -0.072113 -0.008000
0.002927 0.021942 -0.033292
-0.045532 -0.068976 -0.008000
0.033355 0.009558 0.000000
0.047709 -0.037889 0.000000
-0.043598 0.002080 -0.008000
0.028681 -0.026888 -0.029234
-0.031772 -0.018040 -0.013331
-0.045919 -0.015164 -0.008000
0.016809 0.002882 0.000000
-0.019490 -0.000105 -0.035122
0.012186 0.052500 -0.006386
-0.052522 -0.084000 -0.002196
-0.009520 0.007436 -0.036489
0.010149 0.020362 -0.037656
0.009413 -0.003087 0.000000
0.004290 0.051015 -0.008000
-0.002255 -0.010147 -0.038441
0.011094 -0.046469 -0.008000
-0.018764 -0.015912 -0.035541
0.002003 -0.028259 0.000000
0.012611 -0.084378 0.000000
-0.004777 -0.057812 -0.008000
-0.034060 -0.070327 0.000000
0.050647 -0.045729 0.000000
0.016494 -0.028250 -0.024235
-0.019172 0.014682 0.000000
-0.004586 -0.127549 -0.008000
0.044019 0.004002 0.000000
-0.016212 0.018302 -0.037014
-0.005000 -0.156797 -0.031869
-0.010589 -0.023021 -0.032306
-0.026360 0.010666 -0.031155
-0.043237 -0.057570 0.000000
-0.030858 -0.076583 0.000000
-0.026115 -0.028250 -0.021911
-0.007650 -0.101765 -0.008000
-0.019326 -0.070242 -0.008000
0.042004 -0.090467 -0.008000
0.023639 -0.040327 -0.008000
-0.007716 -0.076488 -0.008000
-0.013674 -0.166674 -0.000201
0.001545 -0.010719 0.000000
0.005000 -0.165641 -0.035540
-0.005785 -0.064964 0.000000
0.045297 0.019292 0.000000
-0.039416 0.027699 -0.008000
0.008416 -0.014692 0.000000
0.035806 -0.032043 0.000000
-0.018223 0.052500 -0.004425
-0.038588 -0.004599 -0.008000
-0.045764 -0.073972 0.000000
0.051018 -0.089040 0.000000
-0.015807 0.045977 0.000000
0.051544 -0.052031 -0.008000
-0.051471 -0.040240 0.000000
0.010162 -0.164973 0.000000
0.030254 0.028250 -0.011739
-0.014824 0.029817 0.000000
0.013744 -0.157896 -0.001736
-0.006566 -0.028250 -0.023139
-0.028493 -0.001694 -0.029924
-0.040075 -0.062383 -0.008000
-0.005346 0.029532 -0.008000
0.019041 0.032605 0.000000
0.052522 -0.078405 -0.005723
0.020230 -0.047192 -0.008000
0.009170 0.028250 -0.016425
0.002625 0.013500 -0.035125
-0.051805 -0.051345 0.000000
-0.036292 -0.053116 -0.008000
0.023942 0.026354 -0.029397
-0.043809 0.027722 -0.008000
0.007998 -0.041418 0.000000
-0.013843 -0.163398 0.000000
0.029827 0.028250 -0.024209
-0.006087 -0.019469 0.000000
0.030237 0.029562 0.000000
0.003499 -0.153186 -0.028837
0.037291 -0.064444 -0.008000
-0.015081 -0.153193 -0.031239
-0.007500 -0.106986 -0.006568
-0.015430 -0.034949 0.000000
0.004939 -0.096616 -0.008000
-0.013594 -0.026444 -0.030443
-0.000142 -0.028250 -0.019337
-0.031772 -0.005276 -0.025549
-0.033254 -0.092250 -0.007088
0.017005 0.028250 -0.010875
-0.002042 -0.157250 -0.017893
-0.031772 0.002529 -0.027048
0.034803 -0.062736 0.000000
-0.021017 -0.028250 -0.014191
-0.043938 -0.092055 -0.008000
-0.006060 -0.059380 0.000000
-0.039611 -0.066262 0.000000
-0.006692 -0.011757 0.000000
0.031463 -0.092250 -0.001268
0.006752 -0.076724 -0.008000
0.020111 -0.030126 -0.008000
0.025876 -0.092250 -0.006892
-0.037949 -0.006337 0.000000
0.004176 -0.018259 0.000000
0.052522 -0.034450 -0.003185
-0.004036 0.022462 0.000000
-0.050404 -0.089405 0.000000
0.005067 0.021815 -0.033477
0.009047 0.028770 0.000000
-0.025573 0.010990 -0.031610
-0.013290 -0.073267 0.000000
0.051001 -0.058155 -0.008000
0.051656 0.023569 -0.008000
-0.030580 -0.092250 -0.001940
-0.028109 -0.082190 -0.008000
0.015300 -0.088218 0.000000
-0.001673 -0.055262 -0.008000
0.004691 -0.047010 -0.008000
-0.037910 0.012388 0.000000
-0.011261 -0.041775 0.000000
0.005394 -0.118195 -0.008000
0.028694 -0.088913 -0.008000
-0.003289 -0.096708 0.000000
0.017745 -0.012837 0.000000
-0.031772 -0.019890 -0.019846
-0.008880 0.051526 0.000000
-0.024729 0.045254 -0.008000
0.002283 0.028250 -0.015599
0.036250 -0.040798 0.000000
0.003891 -0.013500 -0.034829
0.017617 0.032998 0.000000
-0.003961 -0.067153 0.000000
0.012916 0.002128 0.000000
0.020565 -0.045051 0.000000
0.049613 -0.054348 0.000000
-0.014066 -0.044071 0.000000
-0.045435 -0.010012 0.000000
0.031728 0.019152 -0.008983
0.022396 -0.030932 0.000000
0.049156 -0.022728 -0.008000
0.000418 0.006205 -0.038441
0.016227 0.026098 -0.028898
0.008267 0.029267 -0.008000
0.024978 0.042987 -0.005560
0.016968 -0.155430 -0.037386
0.015256 0.019065 -0.037541
-0.012737 -0.155602 -0.037857
-0.037704 0.010088 0.000000
0.038710 -0.055744 -0.008000
-0.004828 -0.157250 -0.008918
-0.051612 0.000064 0.000000
-0.005568 0.046751 -0.008000
-0.003842 -0.063348 0.000000
0.012133 0.014887 0.000000
-0.035265 -0.046697 0.000000
0.001426 -0.034863 0.000000
0.022554 -0.003413 -0.033327
0.007055 -0.097799 -0.008000
-0.007649 -0.085991 0.000000
0.018263 -0.040071 0.000000
-0.030379 0.029431 -0.008000
0.024824 -0.001082 0.000000
0.001090 -0.167250 -0.026309
0.011965 -0.153589 -0.032327
0.002750 -0.057812 -0.008000
0.031728 -0.017474 -0.021671
0.052112 0.005602 -0.008000
0.031728 0.027005 -0.010817
0.007500 -0.139356 -0.002651
0.039663 -0.038827 -0.008000
0.009735 0.043694 -0.008000
0.009513 -0.034905 -0.008000
-0.015989 -0.014548 0.000000
-0.007500 -0.124085 -0.003914
0.014267 -0.069029 0.000000
-0.002552 -0.167250 -0.032591
0.031133 0.028250 -0.023514
-0.031772 -0.006304 -0.019392
-0.038748 -0.011132 -0.008000
-0.003232 0.026632 -0.033315
0.025067 -0.078742 0.000000
0.052478 -0.029625 -0.007168
-0.029630 -0.081442 -0.008000
0.034386 -0.031210 -0.008000
0.005829 -0.080983 -0.008000
0.030397 -0.031975 -0.008000
-0.044821 -0.071009 -0.008000
0.021843 0.031071 0.000000
0.002404 -0.045185 0.000000
-0.033488 0.005565 0.000000
0.039643 -0.002127 0.000000
-0.045508 -0.079354 -0.008000
-0.035112 -0.004579 -0.008000
-0.032003 -0.076701 -0.008000
0.019592 0.030829 0.000000
-0.008167 -0.156015 -0.000218
0.022244 -0.024253 0.000000
0.022597 0.030185 -0.008000
0.006516 -0.098284 0.000000
0.031728 -0.004692 -0.018889
0.016054 0.041531 0.000000
0.015640 -0.024476 -0.029728
-0.050843 -0.090929 -0.005950
0.026699 -0.061715 0.000000
-0.000862 -0.134008 0.000000
-0.016712 0.005456 0.000000
0.002933 -0.166438 -0.038749
-0.010351 -0.159090 -0.038670
-0.007322 0.000315 -0.032681
-0.015977 0.046676 0.000000
-0.015798 0.017951 -0.037253
-0.041738 0.032250 -0.001881
0.003543 -0.157250 -0.018833
-0.014227 -0.160217 -0.047562
0.039011 -0.086998 0.000000
-0.026301 -0.012390 0.000000
0.041489 -0.031375 0.000000
0.033158 -0.061783 0.000000
-0.023829 0.031970 -0.008000
-0.030252 0.032250 -0.004622
0.005713 0.022734 0.000000
0.008517 -0.072084 0.000000
0.052478 0.017594 -0.001614
0.003272 0.051563 0.000000
0.017421 -0.077151 0.000000
-0.014126 -0.022034 -0.038201
0.007500 -0.133783 -0.006039
0.029673 0.023387 0.000000
0.031728 -0.006262 -0.011144
0.034222 0.028431 -0.008000
0.030829 0.002854 -0.028550
-0.050857 -0.090915 -0.003148
0.052403 -0.005836 0.000000
-0.021047 -0.035328 -0.008000
0.031359 -0.019471 -0.028244
0.036056 -0.059152 -0.008000
0.031728 -0.027007 -0.020789
-0.015000 -0.160824 -0.000242
-0.012135 0.027964 -0.031286
0.005000 -0.164829 -0.025780
-0.049975 -0.036893 0.000000
0.031728 0.004553 -0.019758
-0.025531 -0.082752 0.000000
0.001965 -0.167250 -0.035083
0.011166 -0.043258 -0.008000
-0.027272 -0.078939 0.000000
0.003182 -0.031782 0.000000
-0.013026 -0.041551 -0.008000
0.014622 -0.028250 -0.026994
0.007500 -0.114361 -0.001871
0.014734 0.028250 -0.027991
-0.028611 -0.012811 0.000000
-0.047646 -0.053412 -0.008000
-0.023819 -0.070830 0.000000
-0.021329 -0.026163 -0.026289
-0.043430 -0.065465 -0.008000
-0.052522 -0.028547 -0.001486
-0.014687 -0.161817 -0.046161
-0.027530 0.028250 -0.020473
0.031526 -0.010077 -0.028148
0.017900 -0.051866 0.000000
0.048612 0.032250 -0.000784
-0.003594 0.052500 -0.001523
-0.052425 0.024921 -0.008000
0.020000 -0.157243 -0.036659
-0.032249 -0.016437 -0.008000
0.026993 -0.090230 -0.008000
-0.035330 -0.081329 0.000000
-0.052522 -0.042288 -0.000042
-0.040271 -0.002265 -0.008000
0.011653 -0.160812 -0.043400
0.051412 -0.047707 0.000000
-0.027269 -0.027665 -0.024813
0.018457 -0.156984 -0.041653
-0.005000 -0.166049 -0.026233
0.014676 -0.156847 -0.041277
0.015550 0.023026 0.000000
0.031728 -0.002186 -0.019236
-0.005863 0.044936 0.000000
0.042328 -0.030995 -0.008000
-0.010269 -0.000372 0.000000
-0.009964 -0.042907 -0.008000
-0.005190 -0.166868 -0.010290
0.027574 0.011060 0.000000
0.004384 -0.157250 -0.023609
0.028564 -0.092250 -0.004938
-0.041294 -0.088559 0.000000
-0.011252 -0.085768 -0.008000
0.026589 -0.018852 0.000000
0.013171 -0.018213 -0.038745
0.006606 -0.046859 -0.008000
0.025419 -0.001896 0.000000
-0.018392 0.018014 -0.035756
-0.006264 -0.133651 -0.008000
0.032790 -0.048039 -0.008000
-0.019748 -0.072904 0.000000
0.008597 -0.092258 -0.008000
0.005000 -0.167021 -0.024895
-0.023159 0.005653 0.000000
-0.033344 0.026792 0.000000
0.041587 -0.088943 -0.008000
-0.011411 -0.057190 -0.008000
-0.013926 -0.095824 -0.005855
-0.052318 -0.052839 -0.008000
0.031728 0.025457 -0.021028
0.018636 -0.054450 0.000000
0.027842 0.028250 -0.013368
-0.024341 0.049260 -0.008000
-0.019296 -0.064002 -0.008000
-0.044578 -0.073717 0.000000
-0.008867 -0.035299 0.000000
-0.001688 -0.090630 -0.008000
0.014605 -0.031137 0.000000
-0.011162 0.052500 -0.000964
0.036996 -0.081228 -0.008000
0.025277 -0.092250 -0.005611
0.007500 -0.129364 -0.000229
-0.005747 0.028250 -0.027132
-0.009507 0.033086 -0.008000
0.001489 0.007153 0.000000
-0.044023 -0.057387 0.000000
-0.010170 0.033108 -0.008000
-0.003803 0.048251 -0.008000
0.044666 -0.045026 0.000000
0.030363 -0.019181 -0.028819
0.052478 0.010601 -0.007522
0.041929 -0.005829 0.000000
-0.006292 0.001322 0.000000
-0.047273 -0.005651 -0.008000
0.040355 -0.000793 0.000000
-0.039528 -0.051285 0.000000
0.041343 0.021375 -0.008000
-0.028773 -0.027568 -0.028179
0.003361 -0.136065 0.000000
-0.019622 0.000680 -0.035045
0.011251 0.011992 -0.039565
0.032469 -0.067447 -0.008000
0.008430 0.006249 -0.034679
-0.035733 -0.077762 -0.008000
-0.007253 -0.159187 -0.008200
-0.018220 -0.082446 -0.008000
0.021504 0.010695 -0.033934
0.011466 -0.019452 -0.039729
-0.002251 0.028250 -0.012844
0.046951 -0.083399 -0.008000
-0.012639 -0.157421 -0.001467
0.028123 0.032250 -0.007348
0.043633 -0.014573 -0.008000
-0.031772 0.019988 -0.016575
0.015954 0.018671 -0.037138
-0.005000 -0.161053 -0.041762
-0.017373 -0.076457 -0.008000
-0.024832 -0.092250 -0.005167
-0.052522 -0.065410 -0.005757
-0.048061 -0.027077 -0.008000
-0.020964 -0.092250 -0.004197
-0.000001 -0.028250 -0.019004
-0.046409 0.011506 0.000000
-0.030836 -0.092250 -0.003034
-0.026772 -0.085103 -0.008000
-0.007500 -0.102799 -0.007209
-0.023523 -0.064834 -0.008000
0.033604 0.017408 -0.008000
0.027750 -0.006424 -0.030328
0.021410 0.010040 0.000000
-0.047613 -0.068079 0.000000
0.009652 -0.090405 -0.008000
-0.036978 -0.007113 -0.008000
-0.027838 0.031585 -0.008000
-0.052522 0.028206 -0.005482
0.007298 0.046823 -0.008000
0.034018 -0.054097 -0.008000
0.006714 0.036396 -0.008000
-0.031772 -0.003287 -0.012982
-0.052522 -0.012306 -0.005812
0.031728 0.002930 -0.011284
-0.007500 -0.151876 -0.005841
0.046212 -0.059708 -0.008000
-0.031772 0.021363 -0.027090
-0.000978 -0.028250 -0.022768
-0.015834 0.008669 -0.037233
0.031916 0.014109 0.000000
-0.009646 0.052500 -0.007595
-0.008106 -0.155954 -0.003170
-0.024571 -0.076156 0.000000
-0.012247 -0.004594 0.000000
-0.001513 -0.160831 -0.047339
0.006931 -0.052087 -0.008000
-0.005019 -0.028250 -0.015471
-0.024061 -0.044366 0.000000
-0.006180 -0.126074 -0.008000
-0.018834 -0.024297 0.000000
-0.023372 0.051150 -0.005083
0.020000 -0.158907 -0.040513
0.011917 0.042249 -0.008000
0.024978 0.047277 -0.006371
-0.021833 -0.029619 -0.008000
0.052478 0.010656 -0.007648
-0.045728 -0.052862 -0.008000
0.034210 -0.092250 -0.006647
-0.052522 -0.078661 -0.007788
-0.051192 -0.054450 -0.008000
0.013987 -0.007209 0.000000
-0.008393 0.028250 -0.015665
-0.007276 -0.071559 0.000000
0.052478 -0.030499 -0.001514
0.025391 0.028250 -0.019576
-0.029921 -0.033419 0.000000
-0.045255 -0.070202 0.000000
-0.003562 -0.167250 -0.032630
0.010692 0.004542 -0.038596
0.001502 -0.146500 0.000000
0.034464 0.030865 0.000000
-0.052522 -0.061841 -0.000659
0.024414 -0.046810 -0.008000
0.051499 0.007625 0.000000
0.010624 -0.166039 -0.008000
-0.000159 -0.148498 -0.008000
0.005400 -0.157390 -0.042769
0.049057 -0.012992 0.000000
-0.035465 0.031146 -0.008000
-0.016658 0.014386 0.000000
0.040702 -0.092250 -0.001404
0.052478 -0.011892 -0.003742
0.003148 -0.000699 0.000000
0.005726 0.021092 0.000000
-0.001698 -0.114051 0.000000
-0.024826 -0.092250 -0.002175
-0.030840 -0.046984 0.000000
0.000564 -0.028250 -0.010585
-0.006575 -0.017371 -0.033603
0.046645 -0.051208 0.000000
0.007500 -0.102736 -0.003309
0.032055 0.015358 0.000000
-0.031772 -0.019772 -0.014964
0.006419 -0.088340 -0.008000
-0.049842 -0.005055 0.000000
-0.031635 -0.070870 -0.008000
-0.006939 0.030044 -0.008000
0.033952 -0.012190 0.000000
-0.005000 -0.158346 -0.027140
-0.011239 0.002011 0.000000
0.047073 0.008778 -0.008000
-0.007633 -0.161039 -0.008098
-0.022566 0.028250 -0.013892
0.007500 -0.105669 -0.003585
0.036504 0.016639 -0.008000
-0.030833 -0.067818 0.000000
-0.030945 -0.044284 -0.008000
0.044157 -0.001708 -0.008000
0.005099 -0.067213 -0.008000
-0.031471 0.027117 0.000000
0.011515 -0.167250 -0.002705
-0.039751 -0.015337 0.000000
-0.003645 -0.028306 -0.008000
-0.005000 -0.159780 -0.024820
0.020433 -0.052292 0.000000
-0.013931 0.002170 -0.038331
0.027895 -0.025002 -0.030244
-0.040947 0.026060 -0.008000
0.012864 -0.019600 -0.038922
-0.041098 -0.050885 0.000000
-0.049895 0.017225 0.000000
0.031728 0.001894 -0.023465
0.051299 -0.086508 -0.008000
0.046169 -0.016232 -0.008000
0.050874 -0.090898 -0.007778
-0.009531 -0.025813 -0.032789
-0.051744 0.012028 -0.008000
-0.007500 -0.111757 -0.007822
0.026935 -0.064193 -0.008000
-0.008722 -0.059888 0.000000
-0.015206 0.028250 -0.023050
0.021918 -0.013772 0.000000
-0.008196 -0.011779 -0.034197
-0.003612 0.028250 -0.012612
0.026336 0.000684 0.000000
0.016236 0.052500 -0.004732
-0.039834 -0.062936 -0.008000
0.002361 -0.157250 -0.020843
0.031728 0.000165 -0.018340
0.022303 -0.015649 -0.033473
0.043134 -0.092250 -0.006406
0.018908 0.010730 -0.035432
-0.041859 -0.070565 -0.008000
0.052245 -0.052139 -0.008000
-0.005416 -0.153417 -0.008000
0.038298 0.009523 0.000000
-0.013380 -0.020191 0.000000
0.000334 0.005498 0.000000
-0.004000 -0.058849 0.000000
-0.031772 -0.003958 -0.022095
0.007965 -0.070113 0.000000
0.030644 -0.028250 -0.011848
-0.020057 -0.007005 -0.034795
0.008620 -0.101130 -0.006446
0.031728 0.021027 -0.013815
0.052478 0.028157 -0.004832
-0.032334 -0.062066 -0.008000
0.013976 -0.076888 -0.008000
0.013973 0.027411 0.000000
0.014371 -0.159958 -0.041054
-0.016364 0.008317 0.000000
0.004377 -0.146383 0.000000
0.015248 -0.024060 -0.032306
0.020497 0.022928 -0.034515
0.049291 0.007977 0.000000
-0.023330 0.021908 0.000000
-0.018865 -0.052881 0.000000
0.031728 -0.013051 -0.021880
0.024435 0.041392 0.000000
-0.027103 0.014358 -0.030727
-0.010834 0.032709 0.000000
-0.030628 -0.044488 -0.008000
0.010175 -0.090200 -0.008000
0.015000 -0.160946 -0.003647
-0.039812 -0.066530 -0.008000
-0.019590 0.027889 -0.026981
0.020748 -0.036474 -0.008000
-0.031772 0.011907 -0.014336
-0.003015 -0.031937 -0.008000
-0.012510 -0.009049 0.000000
0.052522 -0.047933 -0.000010
0.005000 -0.160393 -0.024768
-0.029009 -0.083912 0.000000
0.052522 -0.052765 -0.000294
0.024440 -0.014107 0.000000
-0.020820 0.022273 0.000000
0.034520 -0.063179 0.000000
0.044132 -0.065326 -0.008000
0.041655 -0.092250 -0.007721
0.006418 -0.075729 0.000000
0.011015 -0.154291 -0.034256
0.026708 -0.028250 -0.013005
-0.051622 -0.004466 -0.008000
0.001558 -0.127027 0.000000
-0.048540 -0.068344 0.000000
0.010752 -0.033773 0.000000
-0.052522 -0.086667 -0.004487
-0.009964 -0.019635 -0.037259
0.031728 -0.015332 -0.015096
-0.047571 -0.022652 -0.008000
0.052522 -0.069712 -0.002895
0.009879 -0.082794 0.000000
-0.031772 -0.013718 -0.014112
0.024978 0.047760 -0.002058
-0.007997 -0.014933 -0.033852
0.046901 0.031888 0.000000
-0.006829 0.028250 -0.031023
0.040847 -0.041995 -0.008000
0.042872 0.032250 -0.006104
-0.003767 0.028250 -0.022104
-0.051346 -0.061023 -0.008000
0.031728 0.009559 -0.009903
-0.002507 -0.028250 -0.033191
-0.043790 -0.038148 0.000000
-0.011018 -0.156152 -0.030597
0.031728 0.005529 -0.019671
0.052511 -0.058793 0.000000
0.050611 -0.030619 0.000000
0.014631 0.043358 0.000000
0.051182 -0.009085 -0.008000
-0.040194 -0.061661 -0.008000
-0.007500 -0.108709 -0.004886
-0.052522 -0.004258 -0.004270
0.052522 -0.054830 -0.002231
-0.031772 0.018336 -0.008736
0.009778 0.022477 -0.035235
-0.025043 -0.003257 -0.031916
-0.013208 0.020108 0.000000
0.052276 -0.089496 -0.000313
0.032144 -0.002966 0.000000
-0.042601 0.029356 0.000000
0.004977 -0.025120 0.000000
0.044334 -0.013398 0.000000
0.013398 -0.096352 -0.001566
-0.022478 0.028250 -0.008913
-0.000411 -0.122167 -0.008000
-0.000332 -0.164291 0.000000
0.047411 0.012374 -0.008000
0.007500 -0.104142 -0.007636
0.005000 -0.160072 -0.032738
-0.007102 -0.149914 -0.008000
0.021207 0.002177 0.000000
-0.052522 0.008054 -0.001745
0.018969 -0.063746 0.000000
-0.043323 -0.054974 -0.008000
0.023057 -0.057732 -0.008000
0.031147 -0.022708 0.000000
0.004294 -0.091290 0.000000
-0.018432 0.001980 0.000000
-0.038029 -0.066961 -0.008000
-0.019401 0.015625 0.000000
0.007331 -0.065743 0.000000
0.051465 0.026250 -0.008000
0.045872 -0.008047 0.000000
-0.025022 0.042794 -0.000164
0.003615 0.051012 -0.008000
-0.000337 -0.140232 -0.008000
0.013906 0.050887 -0.008000
-0.014162 0.028250 -0.018017
0.012132 -0.060511 -0.008000
0.002326 -0.069152 -0.008000
-0.008247 -0.045706 -0.008000
-0.006151 0.040566 -0.008000
-0.006119 -0.145325 0.000000
-0.046700 -0.077553 -0.008000
-0.014241 -0.166107 -0.006584
-0.010025 -0.058901 0.000000
0.035148 -0.056377 0.000000
-0.048404 -0.008524 0.000000
-0.051809 -0.065497 -0.008000
-0.002088 -0.140759 0.000000
-0.003575 -0.106908 -0.008000
0.043716 0.031827 0.000000
0.014295 -0.042077 -0.008000
0.006051 0.001969 -0.031260
-0.037235 0.012074 -0.008000
0.003936 -0.144653 0.000000
-0.004294 -0.006015 -0.037775
-0.035262 -0.027089 -0.008000
-0.050681 -0.024307 -0.008000
0.027062 -0.091864 0.000000
0.049848 -0.027320 -0.008000
0.005000 -0.158035 -0.015057
-0.052522 -0.060488 -0.003645
0.040047 -0.048072 0.000000
-0.004141 -0.157250 -0.015302
-0.019838 -0.092250 -0.004008
-0.030731 -0.028712 -0.008000
0.022763 -0.092250 -0.006200
0.008663 -0.072713 0.000000
0.051642 -0.066601 0.000000
-0.008413 -0.082152 0.000000
-0.052522 0.009050 -0.006935
-0.032147 -0.050741 0.000000
0.005375 -0.003889 0.000000
-0.010156 -0.001504 -0.034319
0.044958 0.006520 -0.008000
-0.025230 -0.026477 -0.030588
0.041695 -0.092250 -0.000926
-0.003070 -0.127570 -0.008000
0.013132 0.012156 0.000000
0.012153 0.014404 -0.039333
-0.041676 0.003497 -0.008000
0.049664 -0.016290 -0.008000
-0.014755 0.025532 -0.029773
0.048886 -0.082346 -0.008000
0.010306 -0.028250 -0.027982
-0.014292 -0.158444 -0.001488
0.007121 -0.159081 -0.038646
-0.031772 0.003789 -0.013271
0.007275 0.023917 -0.033667
-0.000514 -0.136406 -0.008000
0.035691 -0.006178 0.000000
0.031062 -0.029534 0.000000
0.042863 -0.085790 0.000000
-0.004498 -0.060306 0.000000
-0.011931 -0.090670 -0.008000
0.016480 0.032531 -0.008000
-0.052522 -0.025516 -0.001917
0.052478 -0.006672 -0.006602
0.005794 -0.104286 0.000000
-0.043640 -0.092250 -0.001818
0.014381 -0.095369 -0.005855
-0.041003 -0.051135 -0.008000
-0.030274 -0.016840 -0.028896
-0.031772 -0.007543 -0.023428
0.031728 -0.017874 -0.013717
0.051028 -0.085365 0.000000
0.043620 -0.031708 0.000000
0.013064 0.000461 -0.031704
0.030433 0.028250 -0.016179
-0.048083 0.021196 0.000000
0.043507 -0.034970 0.000000
0.016191 -0.159789 -0.047718
0.028480 0.007944 -0.029906
-0.007528 0.012421 0.000000
-0.010783 0.040132 -0.008000
-0.020382 -0.029941 -0.008000
0.003220 -0.002449 -0.038370
0.007376 -0.037573 -0.008000
0.014612 -0.015039 -0.037913
0.041421 -0.039917 0.000000
0.001016 -0.167250 -0.027154
0.052522 -0.064834 -0.006660
-0.030302 0.000122 -0.028880
-0.011214 0.015746 0.000000
0.010647 0.023882 -0.032119
0.017702 0.038426 -0.008000
0.011770 -0.077784 0.000000
-0.007413 -0.154081 -0.008000
-0.020685 -0.065895 0.000000
0.028242 -0.084796 -0.008000
-0.022130 -0.070062 0.000000
-0.022897 0.028250 -0.022379
-0.012352 0.033094 0.000000
0.039757 0.028065 -0.008000
0.020388 -0.038717 0.000000
0.001810 -0.154530 -0.028348
0.026198 -0.076575 0.000000
0.006211 -0.135827 -0.008000
-0.051141 0.011071 -0.008000
0.046862 -0.041694 0.000000
0.003962 -0.042781 0.000000
-0.008204 0.047073 0.000000
0.043648 -0.044829 -0.008000
-0.031772 -0.003581 -0.025677
0.030271 -0.030833 -0.008000
0.030450 -0.030880 0.000000
0.005000 -0.160614 -0.026553
0.024306 -0.006685 0.000000
-0.042668 0.007667 0.000000
-0.007712 -0.027243 0.000000
-0.031772 0.025438 -0.015540
-0.031291 -0.028250 -0.010296
-0.018847 -0.021776 -0.035493
-0.018706 -0.028250 -0.020930
-0.011682 -0.098068 -0.004914
0.014269 -0.025347 -0.030028
0.022934 0.050133 0.000000
0.005775 -0.145403 -0.008000
-0.044513 0.026353 -0.008000
0.022868 -0.028250 -0.012351
-0.043131 0.003456 -0.008000
-0.006197 0.003662 -0.032973
0.012043 0.043910 -0.008000
-0.010704 -0.156536 -0.040423
-0.000177 -0.162558 0.000000
-0.049221 -0.091177 -0.008000
0.014690 -0.028250 -0.025977
0.031607 0.028250 -0.020568
0.029709 -0.074371 0.000000
0.016522 -0.156225 -0.030800
-0.018850 -0.070633 -0.008000
0.023818 -0.028250 -0.018632
-0.003565 0.049477 0.000000
0.052478 -0.029404 -0.001597
-0.038621 0.030330 -0.008000
0.022485 -0.034666 -0.008000
0.022775 -0.014550 0.000000
-0.052047 -0.053156 0.000000
0.031728 0.015569 -0.018474
0.012097 -0.058251 0.000000
-0.014278 0.015320 -0.038131
0.031728 0.010374 -0.025116
-0.002449 -0.096078 0.000000
0.050205 -0.010950 0.000000
0.039556 -0.010908 0.000000
-0.025302 -0.087819 0.000000
0.005000 -0.167083 -0.037324
-0.001492 0.019754 0.000000
0.001228 -0.019930 -0.033146
0.019175 0.018477 0.000000
-0.052522 0.020355 -0.005966
0.039522 -0.063683 -0.008000
-0.007021 -0.007678 0.000000
-0.019486 -0.055546 0.000000
0.035527 -0.013249 -0.008000
0.052478 0.006634 -0.002621
-0.031772 0.003747 -0.008681
0.002511 -0.091332 0.000000
-0.012164 0.028250 -0.028280
-0.010672 -0.003635 0.000000
0.027454 0.020931 -0.030498
0.022825 -0.054302 0.000000
0.052522 -0.034805 -0.006684
0.000882 0.052500 -0.002560
-0.007980 -0.090493 -0.008000
-0.001337 -0.076083 -0.008000
-0.052203 -0.085963 0.000000
0.052478 -0.009699 -0.002641
-0.001396 -0.046138 0.000000
0.009912 -0.087378 0.000000
0.052478 -0.019624 -0.000930
0.004299 -0.132912 0.000000
-0.007500 -0.110546 -0.007808
-0.016209 0.009949 0.000000
0.017097 -0.161129 -0.044271
-0.050745 0.020540 -0.008000
-0.005000 -0.159880 -0.011404
-0.007096 0.000811 -0.032292
0.002310 -0.028250 -0.026509
0.042179 0.015692 -0.008000
0.010933 -0.098817 -0.007831
0.048736 -0.085112 -0.008000
0.020481 -0.028250 -0.025801
0.048196 0.017268 0.000000
0.004361 0.028250 -0.024028
0.016320 -0.000944 -0.036926
0.011697 -0.167250 -0.003504
-0.034604 0.004289 -0.008000
0.029470 0.018507 0.000000
-0.014790 -0.157607 -0.034596
-0.031772 -0.025238 -0.015491
0.051105 -0.083881 0.000000
0.049204 -0.007025 0.000000
-0.004909 -0.084999 0.000000
-0.000132 -0.155601 -0.037854
-0.032704 -0.077633 -0.008000
-0.010313 -0.161331 -0.047157
0.052478 -0.002444 -0.007432
-0.001933 -0.087634 0.000000
0.000556 -0.123301 0.000000
-0.005755 -0.042791 0.000000
-0.008091 0.011483 -0.034015
-0.002037 0.039356 -0.008000
0.039439 -0.025636 -0.008000
0.040957 0.029436 -0.008000
0.004548 -0.001492 -0.031992
-0.024698 -0.031202 -0.008000
0.043803 -0.054739 0.000000
-0.000615 0.004569 0.000000
-0.002630 -0.143865 0.000000
0.042784 -0.050000 -0.008000
0.015924 -0.004801 -0.037155
0.040310 -0.038183 -0.008000
-0.000224 -0.167250 -0.030628
-0.002191 -0.153327 -0.008000
0.017372 0.028250 -0.016483
-0.048820 0.005146 0.000000
-0.004138 -0.066646 0.000000
0.026162 0.026947 -0.028597
0.049289 -0.012158 -0.008000
0.015055 -0.009963 -0.037657
-0.019463 0.031886 0.000000
0.052193 -0.079224 -0.008000
-0.001415 -0.065243 -0.008000
-0.003497 -0.047579 -0.008000
-0.029702 -0.034202 0.000000
0.001779 0.038725 -0.008000
-0.023402 -0.028250 -0.015922
-0.015096 -0.023336 -0.036646
0.042327 -0.075106 -0.008000
-0.041465 0.020785 -0.008000
-0.017405 -0.155806 -0.029648
0.005877 -0.028250 -0.018415
-0.050233 -0.067481 0.000000
0.027624 -0.060455 0.000000
0.031061 0.028264 -0.008000
0.007500 -0.110763 -0.000161
-0.016342 0.004123 0.000000
-0.046789 -0.087229 0.000000
-0.051377 -0.061056 0.000000
-0.036880 -0.036733 -0.008000
0.052264 0.029464 -0.006851
0.044924 -0.023646 -0.008000
0.010214 0.001522 -0.034185
0.002669 -0.167250 -0.006542
0.002816 -0.046234 0.000000
-0.016784 -0.028665 0.000000
-0.000216 -0.132435 0.000000
-0.047306 -0.050352 -0.008000
-0.011759 0.037671 -0.008000
0.022117 -0.086619 -0.008000
-0.004395 -0.163319 0.000000
0.051318 0.023151 0.000000
0.015034 0.027010 -0.029587
-0.015007 -0.153450 -0.028741
0.011542 -0.001212 -0.039685
0.005485 0.028250 -0.031988
0.002031 0.013560 -0.033215
-0.031772 0.024476 -0.025434
-0.050061 0.031711 -0.007198
0.020757 -0.024386 -0.033971
-0.002748 0.028250 -0.026717
0.052522 -0.068296 -0.000523
-0.033506 -0.067595 -0.008000
0.051948 0.011828 0.000000
0.050070 -0.026885 -0.008000
-0.014682 -0.088652 -0.008000
-0.000692 0.043160 0.000000
-0.047771 -0.067355 -0.008000
0.052522 -0.033989 -0.007815
0.006830 -0.137446 -0.008000
0.020337 -0.028250 -0.014467
0.010317 0.038041 -0.008000
-0.039560 -0.065504 0.000000
-0.014574 -0.095176 -0.000627
-0.003276 0.013912 -0.033319
-0.024331 -0.054889 -0.008000
0.018222 0.028250 -0.010760
0.000119 -0.167250 -0.011700
-0.043150 -0.022347 0.000000
0.022186 0.010536 0.000000
-0.052334 -0.052988 0.000000
0.000792 -0.043188 -0.008000
0.012539 -0.028250 -0.026042
0.020861 -0.055945 0.000000
-0.008998 -0.028250 -0.021915
-0.013269 -0.046335 0.000000
-0.035965 -0.082339 0.000000
0.003110 -0.015230 0.000000
-0.034049 0.011763 -0.008000
-0.005897 -0.159611 0.000000
0.031728 0.027478 -0.008536
0.031728 0.024969 -0.024810
-0.040360 -0.023804 -0.008000
0.031728 0.016219 -0.012149
-0.001986 -0.098244 0.000000
-0.052454 -0.019031 0.000000
0.009427 0.006370 -0.036405
-0.049598 -0.044802 0.000000
-0.010458 0.014366 0.000000
0.043001 0.032250 -0.005431
-0.044818 -0.092250 -0.004443
0.009043 -0.001404 -0.035221
-0.001832 -0.072058 0.000000
0.016944 -0.028250 -0.022219
0.035314 -0.092250 -0.002526
0.007500 -0.144028 -0.007745
0.024529 -0.052291 0.000000
0.049313 -0.018059 -0.008000
-0.026837 -0.075877 0.000000
0.019772 0.033162 -0.008000
0.004218 -0.111768 0.000000
0.012473 -0.157648 0.000000
-0.031772 0.024843 -0.018622
0.032807 -0.015305 -0.008000
-0.001951 -0.062829 -0.008000
-0.019356 -0.157383 -0.042751
-0.052522 -0.036989 -0.004401
-0.032647 -0.018785 0.000000
-0.020000 -0.156067 -0.037537
-0.052522 0.009459 -0.002002
0.037794 -0.050186 0.000000
-0.031772 0.016906 -0.012164
-0.025249 -0.025045 -0.031797
0.052522 -0.044716 -0.000509
-0.031772 0.005163 -0.016115
0.039054 -0.046683 0.000000
-0.043868 -0.092250 -0.001621
0.011020 -0.167250 -0.006003
-0.005000 -0.160853 -0.022228
-0.001119 -0.153641 -0.008000
0.047172 -0.050112 -0.008000
-0.036708 -0.090990 -0.008000
-0.046068 0.028005 0.000000
0.013440 0.001241 0.000000
0.003859 -0.166412 0.000000
-0.044343 -0.051226 -0.008000
0.018163 -0.067499 0.000000
0.009716 0.050662 0.000000
0.020110 0.031211 0.000000
0.006147 -0.007702 -0.034717
0.018388 0.037811 -0.008000
-0.022640 -0.026904 -0.025221
-0.003292 0.026958 -0.033320
-0.031772 0.025040 -0.010911
-0.046380 -0.092174 -0.008000
0.026846 -0.041800 0.000000
-0.014245 -0.052678 -0.008000
0.046708 -0.027278 -0.008000
-0.010898 -0.028250 -0.008784
0.034367 -0.028242 0.000000
0.035049 -0.074171 -0.008000
0.040495 0.032250 -0.007234
-0.030480 0.021559 -0.028777
-0.005567 -0.136504 -0.008000
-0.025240 0.012231 0.000000
0.044928 -0.008775 -0.008000
-0.001949 -0.128198 -0.008000
0.047255 -0.017664 0.000000
0.006384 0.007807 -0.034581
-0.028100 -0.076070 -0.008000
-0.007965 -0.055596 -0.008000
0.042551 -0.024461 0.000000
-0.011787 -0.157319 -0.042574
-0.006308 0.010028 0.000000
0.045408 -0.015370 -0.008000
-0.000981 0.019094 0.000000
-0.010351 0.006066 0.000000
0.030159 -0.068354 0.000000
-0.048197 -0.068473 -0.008000
0.016078 0.008817 0.000000
-0.014296 -0.161963 -0.046562
0.038124 0.003383 -0.008000
0.017363 0.013185 0.000000
0.003210 0.033691 -0.008000
-0.052522 0.028943 -0.003855
0.003600 0.012599 -0.038151
-0.001884 -0.154572 -0.035029
0.052522 -0.042835 -0.006704
0.052522 -0.033713 -0.007545
0.045909 -0.051201 0.000000
-0.004085 0.028250 -0.014746
-0.039318 0.032250 -0.006462
-0.003923 0.035062 -0.008000
-0.031772 -0.025358 -0.025960
-0.008082 0.015663 -0.034000
-0.052522 -0.082042 -0.004377
0.038636 0.008491 0.000000
-0.015014 -0.016490 0.000000
-0.005452 0.028250 -0.019768
-0.012799 0.041860 -0.008000
0.006191 -0.078244 -0.008000
0.015000 -0.161739 -0.000497
-0.049199 -0.061775 -0.008000
-0.001335 -0.155903 -0.027691
0.015241 -0.077208 0.000000
0.051016 -0.058978 0.000000
-0.024329 0.026431 -0.029386
-0.043768 -0.012498 0.000000
0.031389 -0.045145 0.000000
0.004016 -0.138082 -0.008000
-0.016528 -0.089221 0.000000
0.048282 -0.012023 -0.008000
-0.008749 -0.028250 -0.008436
-0.010919 -0.031551 -0.008000
0.035457 -0.070487 0.000000
-0.003437 -0.007394 -0.038270
0.021704 -0.015028 0.000000
0.031527 -0.022416 0.000000
0.015932 0.028397 -0.008000
-0.011679 0.027626 0.000000
0.020430 0.041198 0.000000
-0.002227 -0.101687 -0.008000
0.021422 0.034159 0.000000
0.002756 -0.016315 -0.033278
0.031095 -0.005581 -0.028396
0.003743 -0.157937 -0.044273
-0.018225 -0.078013 -0.008000
-0.003259 0.028428 0.000000
-0.036062 -0.025160 -0.008000
0.007500 -0.131657 -0.003465
0.047403 0.007813 -0.008000
0.051317 -0.039840 0.000000
-0.026377 0.006156 -0.031146
0.032292 0.015577 -0.008000
-0.004240 -0.037823 -0.008000
0.001604 -0.041548 0.000000
-0.052522 -0.045255 -0.001073
0.021516 0.037966 0.000000
0.008285 0.019627 0.000000
0.023125 0.014383 -0.032998
0.041028 0.032250 -0.005532
-0.039591 -0.092250 -0.006843
0.031728 0.007216 -0.009984
0.031311 -0.024902 0.000000
0.013489 -0.028250 -0.023476
0.052522 -0.055402 -0.007803
0.011787 0.011497 -0.039544
0.049201 -0.019496 0.000000
-0.052522 -0.068694 -0.002759
0.052522 -0.083572 -0.002429
-0.017460 -0.054663 0.000000
0.009244 0.028250 -0.031458
-0.038809 0.010687 -0.008000
0.022673 0.025033 0.000000
-0.014506 -0.067956 0.000000
-0.012634 -0.043814 0.000000
-0.007107 0.052500 -0.006348
-0.052522 0.020180 -0.003440
-0.023646 0.029910 0.000000
0.001709 -0.157594 -0.043330
0.004119 -0.142884 0.000000
0.006320 -0.167250 -0.003444
-0.013225 -0.096525 -0.002969
-0.030056 -0.081711 -0.008000
0.048066 0.008881 0.000000
-0.035401 0.024953 -0.008000
-0.044920 -0.088313 0.000000
-0.006195 -0.001281 0.000000
0.010720 0.010819 -0.038644
-0.010390 -0.157355 -0.042673
0.018361 -0.157418 -0.042847
0.035788 -0.046610 -0.008000
0.011182 -0.073164 0.000000
0.031728 0.020541 -0.024627
-0.030649 -0.019504 -0.028679
-0.048530 -0.057241 -0.008000
0.052522 -0.044097 -0.004051
0.036507 -0.064828 0.000000
-0.014702 -0.163414 0.000000
0.019846 -0.092138 0.000000
0.018337 -0.087465 0.000000
-0.009027 -0.044623 -0.008000
0.035295 0.009976 -0.008000
0.018715 -0.063012 -0.008000
-0.039927 -0.006306 -0.008000
0.031728 -0.010080 -0.014434
0.052478 -0.014493 -0.006810
0.041084 -0.070624 -0.008000
-0.029084 0.023568 -0.029583
0.022863 -0.090277 0.000000
-0.001051 -0.138251 -0.008000
-0.030323 -0.000918 -0.028868
-0.007500 -0.137905 -0.006719
0.031888 -0.021567 -0.008000
-0.003873 -0.046823 -0.008000
-0.007503 0.052500 -0.005658
-0.007434 -0.023606 -0.033677
-0.008615 -0.032858 -0.008000
0.021532 -0.056482 0.000000
0.039467 -0.082329 -0.008000
0.020926 -0.007729 -0.034267
-0.045419 0.001193 -0.008000
0.000264 0.028250 -0.016351
-0.044681 0.028180 -0.008000
0.016546 0.032188 -0.008000
-0.012332 0.000016 -0.039254
-0.024000 -0.086711 -0.008000
0.016651 -0.159667 -0.040256
-0.045543 -0.016046 0.000000
0.022623 0.025834 -0.031184
0.025044 -0.039404 -0.008000
-0.025562 -0.026941 -0.027526
-0.016006 -0.023389 0.000000
-0.006983 -0.094269 -0.008000
0.005006 -0.013423 -0.035376
0.007068 -0.152884 -0.030390
0.018569 0.027025 -0.027546
0.014247 -0.166101 -0.002643
0.001003 -0.008124 -0.038441
0.022952 -0.082142 -0.008000
-0.004996 -0.156516 -0.040369
0.024978 0.039307 -0.003063
-0.003380 -0.001438 0.000000
-0.028634 -0.026348 0.000000
0.034342 -0.006861 -0.008000
-0.029246 -0.019995 0.000000
-0.018531 -0.088807 -0.008000
-0.030335 -0.070147 0.000000
0.009194 -0.028250 -0.022913
-0.033412 0.015227 -0.008000
0.005209 -0.039329 0.000000
-0.011270 -0.156233 -0.030822
-0.030401 -0.052144 0.000000
-0.023660 -0.083508 -0.008000
-0.008681 -0.160328 -0.047522
-0.003141 -0.130757 -0.008000
0.001152 -0.048261 0.000000
-0.011899 -0.097851 -0.006970
0.046566 0.012916 0.000000
0.019638 -0.063279 -0.008000
-0.009333 -0.015157 -0.036166
-0.040861 0.032115 0.000000
-0.043216 0.006724 -0.008000
0.011147 0.015187 -0.039384
-0.025054 0.026704 -0.028502
0.020838 0.018540 0.000000
0.004064 -0.158756 0.000000
0.002707 -0.167250 -0.030929
-0.030900 -0.009744 -0.028534
0.031040 -0.063668 0.000000
-0.019590 -0.023178 -0.035064
-0.012085 -0.081083 0.000000
0.009627 -0.048844 -0.008000
-0.005000 -0.161015 -0.040852
0.007500 -0.139182 -0.006365
0.006359 -0.056182 -0.008000
0.005000 -0.164459 -0.038913
-0.006867 -0.067760 0.000000
-0.024375 -0.060977 -0.008000
0.048731 0.019296 0.000000
0.031728 -0.000145 -0.018791
-0.024691 -0.009943 -0.032119
-0.002761 -0.162533 -0.042617
0.002924 0.038728 -0.008000
0.025101 -0.077699 0.000000
0.003462 -0.161831 -0.046201
0.000606 -0.091889 0.000000
0.031728 0.008949 -0.026010
0.052478 -0.000051 -0.001696
-0.052522 -0.062570 -0.000258
-0.016475 -0.066860 0.000000
-0.047345 -0.072044 -0.008000
0.003178 -0.089931 -0.008000
-0.016568 0.024405 -0.031817
0.023706 0.009005 -0.032662
0.033614 0.005009 0.000000
-0.033502 0.025269 0.000000
0.005000 -0.158908 -0.037126
0.047067 0.006771 -0.008000
0.052522 -0.056743 -0.004239
-0.031780 -0.056088 -0.008000
-0.001751 0.050528 0.000000
-0.037060 0.002506 0.000000
-0.002542 -0.156362 -0.027356
-0.013441 -0.096309 -0.003733
0.021333 -0.068669 -0.008000
0.035343 -0.092250 -0.003249
0.031728 -0.026680 -0.017683
-0.029704 -0.027972 -0.026625
0.006441 0.006172 -0.034547
0.017147 -0.040835 0.000000
0.052522 -0.046380 -0.003896
0.020308 0.025669 -0.028467
-0.050245 -0.015124 -0.008000
0.010154 -0.158250 -0.045132
-0.013059 -0.035311 -0.008000
0.035474 0.025121 0.000000
0.051637 -0.007844 -0.008000
0.007242 -0.148337 -0.008000
0.010044 -0.023492 -0.032467
-0.050050 -0.001961 0.000000
0.047988 -0.002244 0.000000
-0.007232 0.024764 0.000000
0.009083 0.015721 -0.035809
0.003461 -0.010707 -0.038231
-0.027230 -0.026794 -0.029757
0.016706 0.014849 0.000000
-0.052522 -0.060268 -0.001013
0.024009 -0.039409 -0.008000
-0.051050 -0.043788 0.000000
-0.007193 -0.158330 0.000000
0.030455 -0.039915 0.000000
0.015298 -0.159521 -0.047815
-0.016107 -0.053944 0.000000
0.039292 -0.090151 -0.008000
-0.042009 -0.085833 0.000000
-0.044960 0.023245 -0.008000
0.001447 -0.167250 -0.034283
0.008928 0.011997 -0.035542
0.000903 -0.157250 -0.022148
-0.018236 -0.092250 -0.006021
-0.005982 -0.027928 -0.033552
0.042317 -0.002565 -0.008000
0.009357 0.031047 0.000000
0.020000 -0.157176 -0.040508
0.031728 0.016488 -0.021744
-0.046531 -0.011906 -0.008000
0.000316 0.021345 0.000000
-0.010920 0.037916 0.000000
-0.017528 0.039220 -0.008000
0.007500 -0.123589 -0.003636
-0.047531 -0.004299 -0.008000
0.016168 -0.028250 -0.021509
-0.026650 0.013422 -0.030988
0.052478 0.022269 -0.005558
0.003910 0.028250 -0.029232
-0.031772 -0.000603 -0.023656
0.030941 -0.021773 0.000000
-0.007500 -0.132904 -0.005950
0.007500 -0.124801 -0.007358
-0.004569 0.002426 -0.036914
0.015050 0.027798 0.000000
0.049716 -0.090920 0.000000
0.051082 -0.021097 -0.008000
-0.052522 -0.058308 -0.000800
0.052522 -0.082507 -0.006970
-0.028176 -0.074280 -0.008000
-0.045062 -0.014444 0.000000
0.010752 0.032166 0.000000
-0.005000 -0.164518 -0.028781
-0.014161 -0.002952 -0.038199
0.006678 -0.161716 -0.047016
-0.028886 -0.009058 -0.029697
-0.038127 -0.090238 0.000000
-0.048854 -0.005924 0.000000
-0.005677 -0.067135 -0.008000
0.049652 -0.013650 -0.008000
-0.000356 0.045683 0.000000
-0.013635 -0.096115 -0.006884
0.017273 0.049602 0.000000
0.007361 -0.152512 -0.029369
-0.023740 0.028250 -0.012020
0.031728 0.012999 -0.017222
-0.028644 -0.012026 0.000000
0.047444 -0.018136 0.000000
-0.041875 0.015389 -0.008000
0.031728 0.022994 -0.016062
-0.037371 -0.054497 0.000000
0.049855 -0.019766 0.000000
0.020379 -0.083000 -0.008000
-0.031772 -0.023843 -0.023231
0.028137 0.023403 -0.030104
0.041723 -0.054269 -0.008000
0.031728 -0.018047 -0.011528
-0.008431 0.020782 0.000000
0.046166 -0.064154 -0.008000
0.015052 -0.052091 0.000000
0.001800 -0.025022 0.000000
-0.008564 -0.032785 -0.008000
0.019296 -0.161465 -0.045194
-0.023549 0.028250 -0.019220
0.026354 0.018033 0.000000
0.000805 0.028250 -0.011698
0.001556 -0.018592 -0.033174
-0.052522 0.018310 -0.006351
-0.008130 0.038597 -0.008000
0.039540 0.017685 -0.008000
0.025540 -0.030173 0.000000
0.035567 -0.060370 0.000000
-0.005867 -0.110445 -0.008000
-0.011149 -0.028419 -0.008000
0.023278 -0.010160 -0.032909
0.004006 -0.028250 -0.024964
-0.001050 -0.114024 -0.008000
0.000241 -0.167250 -0.034267
0.009010 0.020815 -0.035683
0.006317 -0.157713 0.000000
0.012368 -0.160427 -0.008000
0.031728 -0.020135 -0.018514
0.004901 -0.155001 -0.036207
0.002899 0.001056 -0.034098
0.030517 0.019032 -0.028730
-0.031772 -0.007971 -0.016166
0.003963 -0.164617 -0.040576
-0.037222 -0.092250 -0.006341
-0.039988 0.017945 0.000000
0.031728 0.003992 -0.027056
0.006084 -0.107459 0.000000
-0.052522 -0.040257 -0.006847
-0.004936 -0.119068 0.000000
-0.020696 -0.017668 0.000000
0.019125 -0.003905 0.000000
-0.005265 0.013928 -0.033490
0.025944 0.028250 -0.009183
0.022750 -0.045649 -0.008000
-0.007451 -0.163188 -0.008147
0.007420 -0.167158 0.000000
-0.027723 0.023568 -0.030369
0.015303 -0.043325 0.000000
-0.023866 -0.033231 -0.008000
-0.031772 0.027016 -0.013803
0.017440 -0.024617 0.000000
-0.005000 -0.159034 -0.014356
0.013106 -0.028641 0.000000
-0.008255 -0.046690 0.000000
-0.011353 -0.000956 -0.039665
0.009991 0.022420 -0.036047
0.016879 0.033938 -0.008000
0.048882 -0.053323 0.000000
-0.031772 0.017982 -0.024395
0.021760 -0.044532 0.000000
-0.010624 -0.024951 0.000000
-0.007390 0.008512 -0.034025
-0.031772 0.013450 -0.008286
-0.001260 -0.028250 -0.019132
0.039300 -0.077542 -0.008000
0.031205 0.008766 -0.028333
-0.031922 -0.015193 -0.008000
-0.039653 0.032250 -0.005634
-0.003053 0.047451 0.000000
0.008324 -0.007891 -0.034494
0.031728 0.004684 -0.025562
-0.018793 0.006398 0.000000
0.031728 -0.022899 -0.025095
0.008845 -0.028250 -0.015930
0.008866 -0.072452 -0.008000
-0.052522 -0.081218 -0.002473
-0.031772 0.008458 -0.014544
-0.029480 0.015231 -0.029354
0.007358 -0.136182 0.000000
-0.027474 0.014964 -0.030513
0.001781 -0.013084 0.000000
0.011612 -0.037874 0.000000
0.041914 -0.024893 0.000000
-0.039384 -0.047371 -0.008000
0.025746 -0.019725 -0.031485
-0.034288 -0.009621 -0.008000
-0.031772 0.021937 -0.020926
0.033301 0.032250 -0.002797
0.051506 -0.012140 0.000000
-0.049374 -0.086521 0.000000
0.045400 -0.017864 0.000000
0.052478 -0.020233 -0.002246
-0.045103 0.026570 -0.008000
-0.007158 -0.041306 0.000000
-0.043382 -0.089954 0.000000
-0.021344 0.016833 0.000000
0.018754 -0.028250 -0.025921
0.029830 -0.057836 -0.008000
-0.009356 -0.159246 -0.008000
-0.042912 -0.036669 -0.008000
0.021686 -0.030981 -0.008000
-0.019069 0.016249 0.000000
0.005801 -0.119763 -0.008000
-0.000925 -0.006783 0.000000
0.043486 -0.020123 0.000000
0.024978 0.035735 -0.000793
0.015376 0.035999 0.000000
-0.015923 -0.046421 -0.008000
0.028527 -0.010812 0.000000
-0.039136 -0.092056 0.000000
0.031728 0.006718 -0.027045
0.031728 0.022946 -0.010584
0.026591 -0.028250 -0.014872
0.001822 0.023098 0.000000
0.001895 0.015135 0.000000
-0.034920 -0.067635 0.000000
-0.019851 0.000400 -0.034914
-0.044963 0.021824 -0.008000
0.002960 -0.167250 -0.011478
0.007938 -0.159572 0.000000
0.008855 -0.019369 0.000000
0.011108 0.001593 -0.032655
0.038010 0.020155 -0.008000
0.005780 -0.006758 -0.034929
0.017065 -0.155081 -0.028166
-0.010406 -0.064599 0.000000
-0.009879 -0.011870 0.000000
0.052478 -0.026051 -0.001433
-0.004138 -0.167250 -0.012391
0.031728 -0.004700 -0.016964
-0.024085 0.028250 -0.022102
-0.018284 -0.020687 -0.035818
-0.018819 -0.028250 -0.023752
0.026141 -0.081822 0.000000
-0.013476 -0.096200 0.000000
-0.021936 0.011957 -0.033710
-0.007753 0.028250 -0.028898
0.015000 -0.161421 -0.007936
-0.028960 -0.083025 -0.008000
-0.052466 0.025200 0.000000
0.033465 -0.030394 -0.008000
-0.039892 0.014416 -0.008000
0.050339 0.006261 -0.008000
0.003089 0.013500 -0.036320
0.015916 0.027211 -0.029077
0.006604 -0.126923 0.000000
-0.010406 -0.045102 -0.008000
-0.030792 -0.028250 -0.023889
0.044552 0.028415 -0.008000
0.015318 0.033305 -0.008000
-0.018129 -0.001327 -0.035908
0.047026 -0.036049 0.000000
-0.018644 0.017444 0.000000
0.041804 -0.090904 0.000000
0.031728 0.003327 -0.013430
-0.046833 -0.070139 -0.008000
-0.025022 0.042056 -0.002623
0.046978 -0.080297 -0.008000
0.006596 0.030069 0.000000
0.005398 -0.165925 -0.009515
0.021614 0.025959 -0.028460
-0.017463 0.030529 -0.008000
0.043104 -0.025459 -0.008000
0.042841 -0.066215 -0.008000
-0.014457 0.009475 0.000000
0.013101 -0.156143 -0.039343
-0.031772 0.008299 -0.017434
0.010996 -0.028250 -0.025352
-0.017322 -0.152734 -0.029094
0.035052 -0.039440 -0.008000
0.026607 -0.006746 -0.030988
0.050925 -0.072400 0.000000
-0.031772 0.013403 -0.025888
0.011715 0.052500 -0.005284
0.020985 0.007337 -0.034234
0.007500 -0.113699 -0.003144
-0.009793 0.003333 -0.036963
0.009764 -0.079909 0.000000
0.005000 -0.166379 -0.015988
0.005385 -0.046707 0.000000
0.017745 -0.050955 -0.008000
-0.031772 -0.006949 -0.009810
-0.014733 -0.028250 -0.012437
-0.045917 -0.051509 0.000000
-0.002854 -0.127820 -0.008000
0.001364 -0.093980 0.000000
0.031369 -0.032391 0.000000
0.001091 -0.014955 0.000000
0.020483 -0.027962 0.000000
-0.052081 0.006794 0.000000
-0.007500 -0.141071 -0.001043
0.011590 0.042607 0.000000
0.008822 -0.086753 0.000000
-0.029379 0.014978 -0.029413
-0.049035 -0.016009 -0.008000
-0.004185 -0.018229 -0.033397
-0.022439 -0.031330 -0.008000
0.027538 0.008289 0.000000
0.020705 -0.045284 0.000000
-0.031772 -0.009069 -0.025304
0.001885 0.010239 0.000000
0.031821 0.009927 -0.008000
-0.011301 0.048194 -0.008000
-0.035930 0.022196 0.000000
-0.014872 0.012060 0.000000
-0.022502 0.001958 0.000000
-0.044324 -0.091299 0.000000
-0.030990 -0.016538 -0.028482
-0.010343 -0.063415 -0.008000
0.009306 -0.160837 -0.008000
0.034138 -0.076745 0.000000
-0.031772 0.020576 -0.024030
-0.042660 0.004764 -0.008000
0.009482 0.032423 0.000000
0.016635 -0.153458 -0.028738
-0.002743 -0.165356 -0.039854
0.034549 0.032028 0.000000
0.004320 -0.013500 -0.037371
-0.048875 -0.087880 0.000000
-0.016154 -0.009842 -0.037048
-0.039409 0.028871 -0.008000
0.003617 -0.118006 0.000000
0.003525 -0.167250 -0.033929
-0.032349 -0.092250 -0.002458
-0.023627 -0.055070 0.000000
-0.031772 -0.004456 -0.011923
0.028014 -0.028250 -0.016846
0.002857 0.035912 -0.008000
0.007500 -0.115101 -0.007678
-0.024538 0.014039 0.000000
0.004394 0.032265 0.000000
0.028964 -0.065810 -0.008000
0.034695 -0.047671 0.000000
0.015492 -0.027632 -0.029322
-0.031772 -0.012314 -0.015378
-0.010163 0.002126 0.000000
0.025899 0.028250 -0.020039
-0.016683 0.004431 -0.036742
0.037766 0.019022 0.000000
-0.008189 -0.055027 -0.008000
-0.007468 -0.029053 0.000000
0.029966 -0.090133 0.000000
-0.001552 -0.149977 -0.008000
0.051119 -0.090653 -0.005965
0.031728 -0.011564 -0.020964
-0.012227 -0.043869 -0.008000
0.042731 0.010505 -0.008000
-0.003411 -0.103306 0.000000
-0.034257 -0.054802 0.000000
-0.026933 -0.092250 -0.000187
-0.011761 0.019691 0.000000
0.050287 -0.001799 -0.008000
0.014495 0.017118 -0.037980
-0.023472 -0.021646 -0.032823
0.005000 -0.162433 -0.019977
0.000283 -0.085897 -0.008000
0.051197 0.008329 0.000000
0.024279 -0.028250 -0.024247
-0.033405 -0.080586 -0.008000
0.031728 -0.020328 -0.026698
0.007500 -0.146132 -0.005912
0.006605 0.028250 -0.025957
-0.040897 -0.031043 0.000000
-0.019092 -0.028250 -0.011275
-0.004292 -0.109268 0.000000
0.031728 -0.027150 -0.027933
0.031728 -0.003256 -0.020494
-0.020556 0.047415 -0.008000
0.005378 -0.054737 -0.008000
-0.014782 0.013407 -0.037840
-0.022827 -0.025833 -0.031468
0.041510 -0.011316 0.000000
-0.000827 -0.079825 -0.008000
-0.031772 0.014771 -0.015546
-0.001922 -0.167250 -0.031538
-0.002986 -0.126650 0.000000
-0.031772 -0.003895 -0.020681
0.043124 0.013732 -0.008000
0.024280 -0.052980 -0.008000
-0.047819 -0.086497 -0.008000
-0.024724 -0.008025 -0.032100
-0.014373 -0.156623 -0.040663
-0.018362 -0.028250 -0.008124
0.011785 -0.028250 -0.025792
0.009995 -0.158485 -0.045778
-0.020092 -0.092250 -0.003365
-0.019256 -0.080410 0.000000
0.024623 -0.050161 0.000000
0.016059 -0.159455 -0.039673
-0.007652 -0.032370 0.000000
-0.013418 -0.031803 -0.008000
-0.007135 -0.098379 0.000000
-0.008741 -0.028250 -0.023656
0.052372 0.018511 0.000000
0.013487 -0.161651 -0.047040
0.010600 -0.028250 -0.014217
-0.008306 0.035228 0.000000
0.046677 -0.044794 0.000000
0.007500 -0.130967 -0.001360
-0.003827 -0.105989 0.000000
-0.033230 0.008702 -0.008000
0.005887 -0.014569 -0.033548
-0.003008 -0.167250 -0.002838
-0.006905 -0.016590 0.000000
0.047036 -0.090319 -0.008000
-0.031772 0.004964 -0.021464
-0.004271 -0.028250 -0.008424
-0.041091 0.029456 0.000000
-0.005126 -0.158701 -0.010528
-0.009161 0.006442 -0.035868
-0.007500 -0.137972 -0.007775
0.036969 -0.070356 0.000000
0.038044 0.029375 -0.008000
-0.031772 0.017863 -0.012434
0.012383 -0.028250 -0.030056
0.026551 -0.062488 -0.008000
0.007859 0.021620 -0.033718
0.006673 -0.102076 0.000000
-0.021488 0.031666 -0.008000
-0.007500 -0.135758 -0.004280
-0.021484 -0.057335 -0.008000
0.045135 -0.021531 0.000000
-0.034959 0.032250 -0.006791
0.024468 -0.034603 -0.008000
-0.052522 -0.060636 -0.002529
0.000512 -0.157250 -0.016029
0.021392 0.000123 -0.033998
0.012269 0.011556 -0.039265
0.027292 -0.001474 0.000000
0.034889 -0.037403 0.000000
-0.006094 -0.044583 0.000000
-0.001758 0.004296 -0.038441
0.050002 -0.026741 0.000000
-0.046038 0.025987 0.000000
0.001342 -0.163674 -0.041500
0.052522 -0.046715 -0.003234
-0.010593 0.027241 0.000000
0.035490 -0.040772 -0.008000
0.015000 -0.160530 -0.006971
0.003732 -0.110682 -0.008000
-0.021912 0.022994 -0.033724
-0.033103 0.006397 -0.008000
-0.038543 -0.011688 0.000000
0.050617 0.010268 -0.008000
